# .PCD v.7 - Point Cloud Data file format
VERSION .7
FIELDS x y z
SIZE 4 4 4
TYPE F F F
COUNT 1 1 1
WIDTH 1658
HEIGHT 1
VIEWPOINT 0 0 0 1 0 0 0
POINTS 1658
DATA ascii
-2.16172 -1.047526 1.634011
-1.210595 -0.802781 2.489584
-0.8831902 -0.05059765 2.425723
-1.104592 -0.08136452 2.425482
-1.16917 -0.07697613 2.493797
-2.156248 -0.6405841 1.429979
-1.126541 -0.4889365 2.451738
-2.323829 -1.224307 1.601513
-1.18438 -0.0758925 2.501594
-2.236828 -0.8123799 1.803104
-1.234542 -0.7986747 2.498399
-1.893127 -1.719841 2.144004
-2.077086 -1.810911 2.268629
-2.023734 -1.408252 2.358452
-2.09906 -0.6013524 1.278693
-2.041718 -0.2600597 1.802251
0.04274287 0.3296104 1.570616
-2.450535 -0.1870715 0.3887197
-2.128638 -1.182504 1.528108
-2.109952 -1.159861 1.323403
-2.215967 -0.5452324 1.227687
-1.627108 0.1166472 2.010637
-2.153907 -0.5814841 1.314681
-2.353268 -0.396625 0.9586948
-2.594453 0.1415067 -0.2204314
-2.013268 0.4748059 1.111574
-2.512089 -0.1004815 0.2469385
-2.424639 -0.278899 0.6232576
-2.164702 -0.4011644 0.8088408
-2.115129 -1.015014 1.537279
-2.085049 -0.5958667 1.764294
-2.156397 -0.9845704 1.709789
-2.498472 -0.1362984 0.3332644
-2.491464 -0.1380584 0.3362534
-2.449825 -0.1517782 0.327862
-2.06061 -0.7748081 1.603699
-2.617476 -0.04704011 0.1552539
-2.177445 -0.674693 1.53303
-1.808276 0.02282199 2.221208
-2.14239 -0.7859451 1.696329
0.07712252 0.3002816 1.615806
0.9895973 0.6567041 0.8910151
-2.148803 -0.9208261 1.624384
-2.21235 -0.6676486 1.585359
-2.381321 -0.5995703 1.478762
-2.272071 -0.6823901 1.632453
-1.829562 0.1405081 1.964827
-1.914785 0.1782974 1.804947
-1.975602 0.1981353 1.897166
-2.350982 -0.4449684 1.071792
-0.4568393 -0.9968648 2.304935
-1.883368 0.1597635 1.748891
-2.091046 -0.5931031 1.773008
-1.802676 0.02529895 2.21363
-2.489815 -0.442001 1.170323
0.02979907 0.309583 1.66052
-2.810764 1.155665 -0.4069009
-2.698069 1.096075 -0.2925593
-2.176502 -0.2740861 1.921536
-2.095655 -0.3377206 1.77405
0.09826922 0.3313923 1.632312
-2.121466 -0.3290332 1.879676
-1.962836 0.03269409 1.82241
-2.848491 0.9949225 -0.2627365
-1.965455 0.1005531 1.919683
-2.120774 0.1194663 2.187654
-1.965802 0.02977827 1.832147
-2.14479 -0.276876 1.885371
-2.035305 0.1020757 2.071173
-2.008013 0.07125815 2.028531
-2.180415 0.1296299 2.196351
-0.7509152 -1.474594 1.989175
-2.606835 0.1390595 -0.2208883
-2.530132 -0.2473227 -0.0148249
-2.706626 0.5990293 -0.183185
-2.339875 0.8648746 0.04330795
-2.569613 0.1305572 -0.221414
-2.475469 0.4929798 -0.1445369
-2.369178 0.9372436 0.04703391
0.08164266 0.3801482 1.548573
-2.69348 0.04120013 -0.05818393
-2.627204 0.1628548 -0.2084585
-2.27293 0.797337 0.2544672
-2.167219 -1.029717 1.593335
-2.206253 -1.47243 1.413745
-2.288224 0.8077052 0.303611
-2.296001 0.8086236 0.2923632
-2.490434 -0.34514 0.01080738
-2.223473 0.6703201 0.6263115
-2.151533 -1.477267 1.420631
-2.330734 0.9008741 0.04001097
-2.663831 0.03254722 -0.06013848
-1.634464 0.124067 2.026459
-1.633035 0.119168 2.021475
-2.615695 0.1511684 -0.2171875
-2.361383 -0.4013223 0.9499894
-2.161859 -0.9852594 1.402626
-2.525834 -0.1461839 0.3552568
-2.349406 -0.4012014 0.9537086
-2.226423 -1.439733 1.43381
-2.21979 -1.540389 1.415561
-2.365006 -0.4222876 1.003794
-2.378189 -0.3315307 0.7850714
-2.263419 -0.6131818 1.408064
-2.145979 -0.6052023 1.261166
-1.746989 0.113957 1.682064
-2.193315 -1.320097 1.493559
-2.17138 -0.9574292 1.402095
-2.164539 -1.172212 1.632984
-2.187655 -1.180081 1.656841
-2.31601 -1.462341 1.45744
-2.363425 -0.3501123 0.7872102
-2.341749 -0.3442014 0.7753717
-2.385869 -0.5975991 1.437835
-2.343088 -0.4722372 1.062394
-2.058289 -1.038431 1.576176
-1.931322 0.1840483 1.845508
-2.072803 -0.9760777 1.659247
-2.303997 -0.4512622 1.042097
-2.184495 -0.9462286 1.67865
-1.886622 0.1729675 1.824151
-1.957144 0.12407 1.931553
-2.090585 -0.5934125 1.78524
-2.281456 -1.056906 1.683301
-2.198368 -0.8730676 1.685547
-2.260295 -0.8672581 1.749027
-2.39035 -0.586311 1.352736
-2.182967 -0.9367562 1.669673
-2.189652 -0.2460018 1.827008
-2.016716 -1.785929 2.196481
-1.788691 -0.9050002 2.713128
-1.871344 -1.19215 2.321238
-2.125062 -0.2690071 1.800999
-1.92563 -0.9584702 2.50525
-1.981499 -1.341465 2.327748
-2.005773 -1.400964 2.382695
-1.946396 -0.9343095 2.483164
-1.904914 -1.091216 2.33667
-2.256142 -0.2618144 1.926202
-2.103114 -0.5936466 1.809383
-1.999921 -1.405161 2.355266
-2.069908 -1.211936 2.517738
-1.979454 -1.219702 2.375497
-2.00652 -1.395208 2.321805
-2.066073 -1.349711 2.370852
-1.9895 -1.228747 2.449644
-1.915986 -1.212443 2.363685
-2.123272 -1.184953 1.296451
-2.161988 -1.432126 1.384378
-2.148261 -1.432959 1.369418
-2.357498 -0.6336188 0.551806
-2.288574 -0.6550552 0.5042921
-2.182602 -1.450043 1.400726
-2.340889 0.9091809 0.0421384
-2.479029 0.7583829 -0.06283945
-2.565151 0.2301761 -0.1875426
-2.187593 -1.159816 1.634931
-2.276412 0.799967 0.3065782
-2.507305 0.7827685 -0.07011919
1.061001 0.6265092 0.8797562
1.004094 0.6572121 0.8915222
-2.123059 -0.9465455 1.391265
-2.501609 -0.2131673 0.424605
-2.34367 0.9077136 0.04213563
-2.299012 -1.495069 1.460187
-2.689759 0.1141892 -0.2194044
-2.787675 0.1098438 -0.1827426
-2.096979 -0.6082893 1.334596
-2.404677 0.9342876 0.04829938
-2.402426 -0.2959014 0.6950747
-2.748327 0.1213566 -0.1808727
-2.501408 -0.1934132 0.4886146
-2.62837 0.03626989 -0.04527774
-2.352047 -0.4156657 0.985738
-2.160084 -0.5980683 1.357019
-2.203671 -1.313173 1.496008
-2.221497 -0.6119189 1.403149
-2.699491 0.08082104 -0.1764821
-2.325012 -0.437077 1.025813
-1.994253 -1.769506 2.176011
-1.831332 0.1423844 1.974993
-2.333603 -1.243574 1.657054
-1.997295 -1.776958 2.190739
-2.69827 1.099688 -0.2933071
-2.187575 -1.114156 1.589708
-2.699214 1.099548 -0.2947139
-2.127443 -1.153525 1.585479
-2.212644 -1.191676 1.544466
-2.797017 0.9596453 -0.2663816
-2.882938 1.148935 -0.4372725
-2.055068 0.05912524 1.996011
-2.905687 0.7230569 -0.2849451
-1.941256 0.1825697 1.858315
-2.004349 -1.482319 2.34939
-2.729709 1.102291 -0.2960756
-1.958125 -1.257492 2.341636
-2.711987 1.102437 -0.2953416
-2.151771 -0.85535 1.675587
-1.931016 0.1760621 1.847528
-1.978429 0.06902815 1.852179
-2.01385 -1.496823 2.310325
-2.153027 -0.8742121 1.655588
-1.997864 -1.396699 2.378062
-2.834468 1.121911 -0.3544534
-2.76278 1.123583 -0.4015114
-2.880885 1.149551 -0.4358332
-2.780428 1.1344 -0.4040327
-2.687488 1.089146 -0.2942375
-2.158691 -0.9423944 1.652492
-1.950451 0.1479588 1.91876
-2.668558 -0.05396517 0.1614909
-2.339188 -0.4558677 1.055495
-1.990692 -1.27172 2.431184
-2.866939 1.149668 -0.4366381
-2.213328 -1.048043 1.650636
-1.949364 0.03374327 1.811455
-2.007482 -1.19525 2.475758
-2.008298 -1.283404 2.426228
-1.980745 -1.189459 2.45746
-2.800176 0.9656701 -0.2675543
-2.816204 1.114373 -0.3515678
-1.964429 -1.116881 2.483148
-1.972074 -1.106731 2.491561
-1.968076 -1.110131 2.478962
-1.988966 0.05861562 2.003846
-2.785715 0.9602507 -0.2643522
-2.01298 0.06683928 2.047862
-2.002872 0.07191896 2.040482
-2.011853 0.1004288 2.054319
-1.975351 -1.066108 2.512975
-2.820612 0.9809435 -0.2676846
-2.1871 -1.046346 1.62663
-2.003156 -1.110617 2.517517
-2.792919 1.09691 -0.3517651
-2.038546 0.05795205 2.080311
-1.987953 -1.021568 2.512367
-2.075691 0.07638694 2.086977
-2.099812 0.07726881 2.040852
-1.87358 -0.6845706 2.765804
3.519056 -1.083434 0.2958184
5.619014 0.3029656 0.2580831
5.404377 0.9467942 -0.7498881
5.446499 0.5417203 -0.7515112
5.411696 1.138477 -0.672436
5.557842 -0.1326934 -0.7872844
5.526114 -0.03619133 -0.7756735
5.519224 0.01393584 -0.750798
2.897872 0.7843132 0.7031766
5.437732 0.7121318 -0.7193769
5.61213 -0.5163898 -0.6797224
3.513743 0.8973429 0.4614272
4.15187 0.8819405 0.4827026
3.434052 0.8824959 0.4775519
5.449655 1.082748 -0.5605111
4.063348 0.9691399 0.2585811
5.57848 0.3054778 -0.1309103
0.9773269 0.4301361 1.399277
0.8062156 0.4391604 1.415966
0.8619056 0.4415784 1.369905
1.15525 0.5675696 1.216283
1.145079 0.4883279 1.276355
1.153959 0.4965541 1.271747
1.147889 0.4924414 1.263691
-0.7090774 -0.9931395 2.442635
0.9647751 0.5763717 1.146188
1.093447 0.5387028 1.184613
1.228696 0.3730973 1.561732
1.7069 0.601499 1.045976
1.661349 0.6576357 0.9287771
1.673295 0.6626065 0.9396091
0.8784205 0.3885635 1.595478
-0.0004812648 0.2848859 1.61394
-2.120645 -0.7144433 1.679495
0.133746 0.3617211 1.714887
0.0433323 0.3212078 1.691789
-2.130181 -0.7806543 1.673925
-0.03759208 0.2748014 1.734659
0.009350657 0.2630717 1.701866
-0.04445531 0.2720253 1.726171
-0.03023903 0.2864321 1.756182
0.04884215 0.2889702 1.777684
-0.01878264 0.2885473 1.779312
-0.06361982 0.2682889 1.76538
-0.02951735 0.2674593 1.848008
0.01296708 0.2414559 1.776887
0.02720377 0.2778594 1.753378
0.4659255 0.2350165 1.826376
2.624014 1.594685 -1.295188
-0.007848854 0.2379562 1.783258
0.8499274 0.3712336 1.560308
0.005252047 0.2448463 1.808787
0.6386618 0.2843484 1.918549
0.6702796 0.256207 1.779258
0.3211249 0.2530759 1.804962
-1.948683 0.04392901 1.823449
-0.7492067 -1.389997 2.033793
-0.7513828 -1.411616 2.02966
-0.749768 -1.380602 2.033378
-2.319233 -0.4302931 0.9733763
-0.7533659 -1.376369 2.007263
-2.266713 -0.5466186 1.252488
-1.420565 0.2494302 1.692875
-0.5640943 -0.9742897 2.414188
-0.6427038 -0.9905639 2.375187
-2.224163 -0.5950123 1.397532
-0.7102231 -0.9850425 2.414016
-0.7136605 -0.9791629 2.401796
-0.7088078 -0.9916782 2.410986
-2.247008 -0.6092742 1.422355
-0.955275 -1.042857 2.535317
-0.9394073 -1.007073 2.450942
-0.9360927 -0.9983708 2.425157
-2.136559 -1.018846 1.553895
-1.083815 -0.9783187 2.430013
-1.129275 -0.921663 2.443899
-1.15296 -0.8064794 2.43754
-1.169697 -0.6850695 2.481685
-1.107224 -0.9114793 2.434056
-1.107358 -0.9136341 2.43889
-2.171379 -1.038134 1.604206
-1.157925 -0.6925862 2.450366
-1.123045 -0.9107181 2.415461
-1.09661 -0.89116 2.439447
-2.170623 -0.9616179 1.639157
-2.129083 -0.3537396 1.806957
-1.909091 0.1727427 1.793605
-2.182563 -0.9978618 1.761764
-2.124684 -0.9840091 1.696186
-1.114178 -0.6369439 2.435566
-2.161094 -0.7959553 1.740868
-1.136414 -0.5225887 2.471986
-1.193649 -0.9205199 2.483631
-1.132161 -0.5674247 2.478709
-1.163795 -0.8021676 2.421196
-1.126663 -0.5254032 2.47246
-1.158159 -0.1909213 2.447065
-1.163219 -0.2431146 2.478735
-1.146528 -0.4343251 2.494027
-1.211404 -0.8225592 2.600194
-1.120366 -0.5642245 2.428457
-1.158064 -0.3073809 2.460472
-1.141899 -0.4368295 2.443823
-2.120092 -0.5311061 1.750738
-1.194217 -0.1160115 2.471644
-1.197129 -0.1081423 2.525225
-2.011186 0.07131962 1.970124
-1.808853 0.02476767 2.218211
-1.997174 -1.78598 2.196598
-2.013165 -1.494133 2.376287
-2.018822 -1.504996 2.341054
-2.059924 -1.317771 2.482376
-1.987421 -1.266482 2.366663
-2.012705 -1.209353 2.498562
-2.00181 -1.18949 2.450564
-2.046841 -1.328105 2.494523
-1.976985 -1.07721 2.464151
-1.917607 -1.040898 2.336327
-1.933408 -0.9453828 2.552573
-1.951037 -0.9962165 2.545771
-2.011789 -1.280084 2.447503
-1.989733 -1.073018 2.542999
-1.884506 -0.6795134 2.811286
-0.178998 0.1140199 1.965756
-0.01017044 0.2222404 1.82964
1.251551 0.6037241 1.046217
0.436386 0.1657327 2.005234
0.7447807 0.5759273 1.109611
0.6597586 -0.8074585 2.003889
0.4370074 0.1657798 2.011941
0.9353171 0.5556754 1.108229
0.7988902 0.3686783 1.559481
0.9272571 0.3698579 -0.5474507
1.730796 -1.497492 1.656022
-0.1425496 0.06796096 2.157182
0.5756989 -0.7711055 1.808797
-0.1549763 0.06329266 2.125213
-0.1463669 0.09920736 2.165
0.8360268 0.3617947 1.527191
0.3702755 -0.8571858 2.173574
-0.1638789 0.05417565 2.102178
1.224427 0.6628079 0.8530046
1.193771 0.5526526 1.004074
-0.1282258 0.1042838 2.143076
2.12293 1.304096 -0.6400924
-0.1934606 0.113187 2.201791
-0.2280037 0.1018746 2.165503
-0.249269 0.0841713 2.092581
1.271773 0.3258031 1.577778
0.9349101 0.5978653 1.038005
-0.2399992 0.08361463 2.086035
-0.2464153 0.07613451 2.077414
0.7949711 0.01712864 2.075879
0.2966308 -0.841938 2.049463
0.6942787 -0.7848058 1.977321
-0.2529999 0.07982714 2.085335
-0.246016 0.09207442 2.11399
0.1073093 -1.318324 2.043787
0.8610269 0.03438536 2.152674
0.7970628 0.009010163 2.074614
2.281474 1.424059 -0.5739754
2.04082 0.6740149 0.8925546
0.8353094 0.3771984 1.5691
1.714013 0.6141675 1.015711
0.9812154 0.3641292 1.597178
2.242738 1.181329 -0.2575671
1.040102 0.6930247 0.8351373
2.725707 1.671467 -1.284543
0.9820578 0.3674487 1.575545
0.8428692 0.3918239 1.588103
0.9382327 0.5578787 1.109359
2.813604 1.589139 -1.215622
1.68568 0.6913104 0.9339607
3.163719 1.700051 -1.777549
1.733666 -1.482755 1.655391
1.357994 0.4110173 1.434528
1.543616 0.5707132 1.127777
1.378047 0.4772917 1.328989
0.7816333 0.3671335 1.549348
0.7123389 -1.148693 1.812779
0.7186233 -1.150228 1.825239
0.6995529 0.2384543 1.828113
2.219579 1.166185 -0.2755829
1.458316 0.4701328 1.315632
1.536561 0.5161389 1.251996
1.792021 0.6603816 0.9107176
2.274429 1.415947 -0.5796008
3.175197 1.71077 -1.776317
1.411513 0.4340884 1.346018
0.3582157 -0.8403038 2.120901
3.135847 1.686201 -1.77549
2.645854 1.309308 -0.5749812
1.088611 0.369953 1.56746
1.11695 0.3156305 1.69587
1.25302 0.3965347 1.5085
0.8462063 0.2172302 1.895672
3.257993 1.762582 -1.788295
2.561371 -1.051666 0.5715765
1.60981 0.5512171 0.8693779
1.637088 0.7727588 -0.3118647
1.619344 0.7694294 -0.3178658
3.403475 1.844448 -1.792889
2.211973 1.257125 -0.4501908
3.03794 1.585715 -1.098522
2.049698 0.5744269 1.117622
2.72695 1.112469 -0.1626854
-0.009468824 -0.8620075 2.048838
0.0411937 -0.8687364 2.133299
0.5366233 -0.8615009 2.274771
-1.19029 -0.1336981 2.483944
-0.805683 -0.9927695 2.346952
-1.160757 -0.6905555 2.459646
-1.959164 -0.9986405 2.539696
2.81734 1.584952 -1.200938
2.628994 1.425317 -0.8119264
2.650311 1.319648 -0.586093
2.637961 1.309682 -0.5940374
2.560973 -1.061674 0.5838025
1.329139 -0.03977678 2.133113
2.217137 0.8754713 0.4388593
2.140429 0.6826304 0.9104577
2.608973 1.281804 -0.4606756
2.129807 0.6775859 0.8908754
2.621181 1.298238 -0.5248191
2.141021 0.6777963 0.9000095
1.288785 0.2912947 1.734962
2.910519 1.543803 -1.724397
2.249938 1.190622 -0.2739824
2.74026 1.489383 -0.73165
3.472003 1.588091 -1.159206
2.321935 0.5236086 1.269623
2.845015 1.22157 -0.3212011
3.389583 1.557437 -1.145828
2.652785 1.433103 -0.7861614
3.657387 1.482227 -0.9283746
1.175225 0.3501563 1.793073
1.288821 0.3336017 1.606752
1.220238 0.3003957 1.530612
1.307227 0.3260486 1.65839
1.94096 0.814869 0.5396937
1.533917 0.5108286 1.250278
2.028269 0.7754499 0.6888017
1.938505 0.7272554 0.7286404
2.500389 -1.135459 0.4851599
1.796192 -1.78185 1.635745
1.953483 0.8231832 0.4479287
1.990385 0.7541451 0.7036235
0.9759089 0.1736265 2.024852
1.156697 0.4934899 1.282397
0.8836934 0.2369304 1.915976
0.9681542 0.2833076 1.697416
0.9408845 0.1751466 1.883036
0.9548087 0.1518238 2.038808
1.079515 0.3531758 1.55225
1.237886 0.472114 1.316095
1.055946 0.228862 1.841477
2.834069 1.593506 -1.200185
0.8370495 0.3668543 1.54525
0.7560668 0.2576693 1.737518
0.8634226 0.2273343 1.898075
1.752821 0.517114 1.266052
1.118315 0.314184 1.695719
1.25368 0.3976362 1.50683
1.734079 0.5086166 1.274885
1.058876 0.237156 1.853213
1.737519 0.5119232 1.286356
1.3233 0.3379704 1.686179
0.7009186 -0.8006681 2.06802
0.8922964 0.1579165 2.048747
1.737882 0.511094 1.260378
1.06129 0.2367223 1.859606
1.052773 0.239376 1.846924
1.302354 0.3258686 1.657585
1.310467 0.3228925 1.679437
1.309284 0.3159667 1.714857
0.9275135 0.1889224 2.082213
1.750214 -1.748146 1.575884
1.680626 -1.726635 1.524673
2.334046 0.5406027 1.244636
1.692749 -1.459215 1.634434
1.717802 -1.520667 1.615961
1.343881 -0.2821141 2.097152
1.827888 -1.361916 1.725492
1.271272 -0.05524073 2.055811
1.334253 -0.164521 2.108434
1.329004 -0.2875301 2.07636
1.722575 -0.1259013 2.048891
1.310178 0.1080378 2.149378
1.540799 -0.3382666 2.06048
1.322325 -0.0429369 2.132704
2.629979 -1.552251 1.419072
1.722919 -0.2463334 2.032483
1.317516 0.08347578 2.144729
2.839787 -1.654758 1.476095
1.760768 -0.2383926 2.075198
2.756878 -1.63289 1.435224
2.662551 -1.599787 1.407324
2.606237 0.1615683 2.099798
2.219352 0.8748502 0.4393506
2.618603 1.413106 -0.783509
1.797236 -1.274783 1.729187
1.790894 -1.280334 1.730722
2.497158 1.66771 -1.374445
2.547391 -1.058159 0.5656238
2.54112 -1.032514 0.5850524
2.543159 -0.7028753 0.8121434
2.158113 1.332355 -0.6229078
1.839126 -1.809752 1.68716
1.960164 1.211889 -0.3513771
1.538399 -0.3343735 2.053872
1.719989 -0.2489333 2.032007
3.233848 1.317058 -0.5955016
3.399857 1.277162 -0.4511862
3.635621 1.480559 -0.935551
3.400127 1.273209 -0.4507856
2.54015 1.350962 -0.787326
3.382022 1.277328 -0.461965
3.381618 1.263377 -0.4413388
3.38192 1.276276 -0.4633926
3.261586 1.228536 -0.3478839
1.657782 0.6533332 0.9257417
2.730202 0.7950639 0.6772214
3.65471 1.480769 -0.9298138
3.443567 1.220839 -0.3241526
3.532655 1.26368 -0.3407127
2.539188 -0.6978353 1.805689
1.633439 0.7730651 -0.3191486
2.89149 0.7787112 0.6984628
2.865675 0.6852961 0.9043791
2.699794 1.123192 -0.1641387
2.856395 1.222173 -0.3146603
1.643466 0.6541952 0.9275854
2.711292 1.001974 0.1597327
1.653841 0.6599652 0.9321303
2.644397 -1.648891 1.408369
3.365144 1.498109 -0.9090593
3.380809 1.498895 -0.9102014
3.472539 1.552248 -0.8963087
3.562367 1.323606 -0.3919531
2.665837 -1.596745 1.413932
2.828732 0.8272184 0.6199461
2.837321 0.8814147 0.4834203
2.848821 0.8764588 0.4982872
2.846836 0.8720174 0.5007638
1.655471 0.6632567 0.9494576
2.752309 -1.634331 1.481062
5.591448 0.2595456 0.03839204
4.395168 1.66537 -1.568741
4.008825 0.9670685 0.2847881
3.442681 1.350673 -0.6026567
3.001054 1.261509 -0.4214469
5.683879 -0.2029108 -0.004925868
1.791304 0.663273 0.9055731
2.436756 1.07932 -0.01943509
2.621251 1.089312 -0.08841781
2.570076 -1.197242 0.539814
2.134531 0.6749085 0.8859414
2.611515 1.071041 -0.01493571
3.291171 1.558191 -1.325406
2.397877 0.7702807 0.7106992
2.6224 0.9710366 0.1853368
2.5418 0.8393233 0.6053611
3.252609 1.138091 -0.1312884
2.48782 0.6237221 1.019931
3.351427 1.172601 -0.2021094
2.599093 -1.300586 1.523025
2.460585 0.6196937 1.062597
3.270528 1.13626 -0.1005579
3.707324 1.511486 -0.9686926
3.254271 1.134788 -0.139998
2.617739 0.4537839 1.173439
5.367226 0.7421601 -0.9721263
2.852851 0.6345484 0.8787026
2.499187 -0.4881657 1.814901
2.772424 0.6282222 1.114031
3.463995 -0.9527926 0.2251441
5.367001 -0.0242035 -1.629218
2.819135 0.8627757 0.4903415
2.84807 0.8685458 0.4894363
3.492517 -1.043037 0.191363
2.842907 0.8712818 0.4909719
5.459674 -0.03352978 -1.033216
4.248901 1.359165 -0.7044687
3.519217 -1.063414 0.232699
3.461977 -0.9526439 0.2198603
4.133029 1.291659 -0.4265608
5.328753 0.09639797 -1.359287
3.463809 -0.9544511 0.2298361
5.416923 0.09347548 -1.330015
5.615069 0.2982037 0.2516424
5.503562 -0.3228867 -1.132009
5.533689 -0.638693 -1.268249
5.370497 0.5598252 -1.234559
5.425159 0.1431696 -1.144378
2.897772 0.7606449 0.790402
5.45236 -0.119377 -1.078528
5.326124 0.948814 -1.155197
3.386909 0.9666734 0.3319732
5.342967 1.004349 -1.176274
3.385707 0.8465648 0.505796
2.782676 0.6630634 0.9553307
3.383782 0.8639428 0.5580687
2.881982 0.6424863 0.983739
5.499622 -0.4100589 -1.230173
4.425761 1.281406 -0.4124265
5.466243 -0.3096117 -1.151893
4.444009 1.205438 -0.1921235
5.52673 -0.2331264 -0.8589549
5.64535 -0.1120304 0.03450509
5.600785 0.4484445 -0.1611802
5.47251 -0.4151743 -1.206172
5.590016 0.3921357 0.169772
5.622616 0.5790424 -0.0001531556
3.690659 0.8995493 0.4967406
5.496763 -0.3853326 -1.215517
5.473872 0.3108921 -0.9343263
5.661712 0.14011 0.3212071
5.624711 0.9090617 0.4245417
3.726515 1.523298 -0.9535874
2.614356 0.966135 0.1425988
5.587743 0.4207744 0.0536303
3.250495 1.209807 -0.3953779
5.432548 0.4173164 -1.021943
3.294227 1.234962 -0.3604755
3.397568 1.268483 -0.4765872
2.508693 0.9101119 0.3811384
3.580287 1.312341 -0.5591488
3.603232 1.326702 -0.5380025
5.581831 0.4202271 0.05123137
3.232488 1.114954 -0.1285389
2.808694 0.9567078 0.3114444
3.355663 1.149181 -0.1925007
5.467618 -0.121998 -1.07371
3.616925 1.341489 -0.521646
5.40843 -0.3592124 -1.703362
3.981892 1.359093 -0.6366349
3.511959 -1.05692 0.2342105
5.607594 0.04772007 -0.09296146
2.055195 0.581073 1.115205
5.64586 0.3108423 0.2870567
3.186103 0.9889612 0.2322572
5.378881 0.1599636 -1.482922
5.598404 0.5859368 0.2293604
4.293097 1.390448 -0.6727664
4.216169 1.393598 -0.6607265
5.309855 0.963527 -1.327717
4.277411 1.369671 -0.669095
4.297534 1.388987 -0.6550364
4.223152 1.383048 -0.6494439
5.510889 -0.631977 -1.278013
4.136315 1.302407 -0.4504157
4.145225 1.307904 -0.445218
3.609316 1.342467 -0.5228726
4.135904 1.296367 -0.4380041
3.360631 0.965067 0.3130618
5.313775 0.9648525 -1.326234
5.369203 0.518839 -1.320946
4.212345 1.176744 -0.2015737
5.361397 0.7504202 -1.222933
5.332047 0.7101657 -1.226379
4.176694 1.178405 -0.2288318
3.346935 0.9550018 0.2732362
5.570558 -0.9177815 -1.142439
5.477197 -0.3182249 -1.144521
5.597334 0.3918519 0.1843926
5.710971 -0.2466519 0.3550467
5.813026 -1.272426 0.2748651
4.15805 0.8960013 0.4937735
2.897701 0.7736198 0.6892785
3.825169 0.8694562 0.5320908
3.788405 0.871883 0.5411015
3.462991 -0.9574337 0.2346412
5.772692 -1.293748 0.2506952
5.641646 0.4587065 0.4004346
5.834162 -1.208856 0.3547159
2.856144 0.762912 0.8281755
5.659859 -0.0691075 0.2750879
5.693041 0.227636 0.4836789
3.998121 -1.468657 1.020667
4.904961 0.9615456 0.4862485
4.022868 -1.226788 1.202265
5.715379 -0.1266303 0.4845658
4.247743 0.7602917 0.7359951
5.696936 0.03689342 0.4477953
5.564661 -0.7809672 -1.010345
5.425782 0.4131339 -1.024777
3.575074 0.8992819 0.5361379
3.437646 0.8506614 0.646048
5.573821 -0.784496 -1.009267
3.676109 -0.3920318 0.7805543
3.175383 -1.544199 1.176666
5.4757 0.144332 -0.9412505
5.343705 1.334524 -1.030099
5.626753 -0.8916699 -0.7897026
3.651778 -0.2050458 0.7893692
3.883173 0.8859808 0.5057909
3.879848 0.8860093 0.5209798
5.471952 -0.313806 -1.149521
4.106176 0.903185 0.446713
5.511548 -0.4032838 -1.169255
3.568165 0.2557097 0.7638596
5.810149 -1.003103 0.3865014
5.395823 0.8848621 -0.7239087
4.184555 0.9596535 0.3455016
4.665212 1.051411 0.1592611
4.180932 0.9641774 0.3378356
4.229439 0.905376 0.4506366
4.036566 0.8706114 0.5847248
5.601186 -0.2645124 -0.5755894
5.580681 0.05090403 -0.1150767
4.020006 0.8660499 0.5713134
5.452906 1.080279 -0.5617174
5.804987 -1.077025 0.3821404
5.443586 1.075809 -0.5673925
4.307161 1.034827 0.5704204
5.615955 -0.3415602 -0.352045
4.859479 1.092051 0.02157232
4.720249 -0.6231035 1.026381
5.589063 -0.4942738 0.8688079
4.019254 -1.264713 1.147581
5.885732 -1.149223 0.7276784
2.563978 -1.145362 0.5037155
4.733171 -1.01921 0.9726292
3.708704 -1.428731 1.086615
3.863201 -0.2481832 0.818437
4.021014 -1.278395 1.174329
3.985192 -1.195725 1.243402
3.971079 -1.039063 1.2731
3.968591 -1.015046 1.327011
3.973488 -1.042339 1.385321
3.942413 -0.963996 1.260999
3.964922 -0.9420465 1.308093
3.973001 -1.013656 1.331772
4.550191 -0.3295511 1.462352
4.137935 -0.939 1.357153
4.671173 -0.4000522 1.125543
4.01281 -1.571697 1.038924
4.52783 -0.3694891 1.305319
4.02975 -0.9017775 1.352238
3.970678 -0.79942 1.47372
3.953792 -0.795847 1.410205
3.899936 -0.5718695 1.444722
4.120871 -0.876176 1.33554
3.951923 -0.7259938 1.436698
3.712161 -1.433416 1.096338
3.95128 -0.7231587 1.433412
4.595815 -0.388936 1.509352
4.735796 -0.6053357 1.413897
4.080554 -0.2527408 1.536328
4.00327 -1.547831 0.9869447
3.800419 -0.5131938 1.722981
3.944819 -0.626597 1.509995
3.874456 -0.2680556 1.578671
4.794771 -1.500261 0.737882
5.77102 -1.183984 0.618966
5.725416 -1.380337 0.4958965
5.705808 -1.481033 0.4816457
5.730165 -1.400008 0.4629295
3.172574 -1.497326 1.077568
5.73211 -1.21963 0.559595
4.765387 -1.059671 0.82407
5.694974 0.3288152 0.6199843
2.578214 0.5411462 1.274275
5.892507 -1.016268 0.6198945
4.765233 -1.09354 0.8284774
5.855186 -0.407804 0.6686761
4.804 -0.6394472 0.9892816
5.863798 -0.7673067 0.6797683
2.97099 0.6199543 0.9372031
3.472687 0.9028307 0.4388996
5.804071 -0.9990162 0.3826367
5.628514 0.08369878 0.1239016
3.590931 0.853762 0.5484353
5.311716 0.8045014 0.7084463
4.209924 0.9246373 0.3814308
2.88136 0.6450988 1.043526
5.654703 -0.5603491 -0.4609692
4.418031 0.9914712 0.2965266
4.081757 0.9290199 0.4144375
3.952898 0.9288394 0.4877452
5.637153 0.08334093 0.1354189
3.716737 0.8384779 0.699012
5.586581 0.2914638 -0.3453701
5.569866 0.1804428 -0.401969
3.450023 0.5826285 0.9170883
4.154114 0.8695379 0.479968
5.644657 -0.3443425 -0.3315332
5.013704 1.136965 -0.03284254
5.65456 -0.3455876 -0.3234065
5.628637 -0.147874 -0.113064
3.792866 0.8177629 0.4883519
4.042753 0.9354436 0.6359863
4.560551 1.012991 0.2271348
4.478148 0.9743206 0.3242781
5.644557 0.8668935 0.5162753
5.66957 -0.2021632 -0.01709144
4.172347 0.9030595 0.4635724
3.460343 0.5964805 0.9057445
3.52939 0.6862478 0.9604832
4.224193 0.9379323 0.5074034
4.06942 0.985457 0.2926186
3.466194 0.5981782 0.8960341
3.148534 -1.593549 1.245282
3.182165 -1.526489 1.12173
3.935258 0.8862931 0.5002713
3.468358 0.6127927 0.9112299
3.897817 0.7754183 0.7299898
3.531178 0.6915227 0.9601884
3.173424 -1.543632 1.226103
3.172857 -1.549165 1.211979
5.607687 0.5845171 -0.04659868
3.679399 0.7297664 0.9097042
5.581536 0.7313164 -0.01430927
5.61053 0.2619831 0.05197818
5.601809 0.05076063 -0.09561423
4.748631 -1.146678 0.7867966
4.747795 -0.945538 0.9804119
4.735824 -0.9377952 0.966742
2.56026 -1.049914 0.5736057
2.566358 0.4465835 1.281999
1.791282 -1.744246 1.550378
1.797791 -1.739547 1.537983
1.042795 0.3791577 1.551907
0.7384571 -1.642092 1.590389
1.737559 -1.42982 1.66843
4.765723 -0.6620245 1.220618
5.59943 0.2586824 0.041504
5.709563 1.013609 0.348807
5.625865 0.3041975 0.2683937
5.260066 0.8780516 0.6048924
3.397241 -1.604861 1.340169
5.706125 0.03222452 0.4607435
5.627911 -0.06571054 0.2347199
4.765181 -1.456257 0.6633828
3.667747 0.4179864 1.552401
5.804743 -1.351426 0.2215281
5.736241 -0.1275259 0.5032288
4.26635 0.7793386 0.8081422
5.814566 -1.354612 0.224645
4.773884 -1.196181 0.8885072
4.779344 -1.070353 0.8209772
4.750434 -1.156401 0.7975376
5.683223 -1.458969 0.449047
5.681664 -1.456361 0.4473387
5.681978 -0.07093855 0.2983123
5.668283 -1.430825 0.442084
3.842803 -0.4825951 1.757853
5.312743 -0.8944838 0.864984
5.712276 0.3375397 0.6374928
5.785264 -1.347544 0.5453924
5.886544 -0.4015511 0.6493143
4.72346 -0.6232442 1.031974
3.760698 -0.3133138 1.634074
3.753829 -0.4319794 1.554304
5.719031 0.3398556 0.6457951
3.90768 -0.358568 1.585491
5.277404 -0.5820276 0.9184943
3.755114 0.2630626 1.780447
4.2787 -0.201928 1.516254
4.054671 -0.2340095 1.562366
3.797274 -0.4944926 1.726286
3.829869 -0.465422 1.729304
3.739472 -0.2521817 1.029438
4.58095 -0.3248183 1.54292
4.014781 -0.472889 1.662929
5.583906 -0.5661414 0.832707
4.766785 -0.4291221 1.405544
3.754315 0.2244439 1.582589
4.631393 0.4156392 1.457419
3.833892 -0.4639685 1.741272
3.949171 -0.3217191 1.689684
4.335445 -0.3565382 1.498638
3.826908 -0.4562779 1.717167
4.570795 -0.2302562 1.391188
5.879494 -0.4878282 0.8126656
4.711686 -0.2283147 1.587325
3.98662 -1.277732 1.155499
3.968847 0.8306498 0.6882591
5.717342 -1.268025 0.5081008
5.742831 -1.403448 0.4723685
2.875633 0.6446313 1.027834
5.682707 0.2223496 0.4666585
4.937845 -0.5820521 0.9847199
5.677773 0.2322286 0.4644857
3.463867 -0.9563855 0.2340078
3.460088 0.6000969 0.9119242
5.687714 0.03815172 0.4423161
3.201266 -1.617135 1.097893
5.263867 0.8786115 0.612449
4.261805 0.7779202 0.7959941
5.725083 -1.155968 0.5700706
3.495531 0.603188 0.8554261
5.709982 -1.146248 0.5475503
5.292655 -1.001011 0.762872
3.836412 0.6990247 1.039578
3.015002 0.6571683 1.057564
5.204926 -0.6732298 0.8218151
3.175062 -1.549253 1.24047
2.588738 0.5533034 1.246271
2.613978 0.5317817 1.191712
5.773579 -0.4950444 0.8251451
5.803841 -0.5002382 0.8664733
4.691874 -0.4034321 1.149665
2.631846 -1.656932 1.420032
4.296088 0.5999629 1.212155
2.637376 -1.666119 1.47158
2.68561 -1.60653 1.325767
2.617505 -1.685586 1.498774
2.764932 -1.536141 1.2294
4.732954 -0.5946344 1.023825
4.812234 -0.6423577 1.003473
5.725518 -1.111198 0.2494164
3.93664 -0.818638 1.359661
4.957245 0.4745744 1.394209
3.685467 -1.345711 0.9288486
5.713226 0.03847048 0.4610112
4.169265 -0.2468087 1.506439
3.760113 -0.2973307 1.633794
4.514952 -0.1866807 1.497641
4.390089 -0.2247188 1.462961
4.214415 -0.2435916 1.499199
3.941433 -0.2680326 1.535293
4.594834 -0.1794702 1.447105
3.831568 -0.2820601 1.631419
3.807708 -0.282213 1.575057
4.20383 -0.2439232 1.609936
3.726621 -0.5001366 1.754562
3.987986 -0.2636061 1.542723
3.836454 -0.3307168 1.616903
3.850825 -0.279512 1.55297
3.744777 -0.3718674 1.576568
3.735542 -0.2714671 1.594395
4.341075 -0.3513617 1.574111
4.220652 -0.2475107 1.572422
4.68741 -0.3484248 1.447132
2.726608 -1.594615 1.346153
4.712653 -0.0636832 1.244988
3.777495 -0.3118435 1.60122
5.75544 0.6162269 1.111265
4.643844 -0.3473949 1.390388
5.690741 0.5302975 1.068201
5.803323 0.3238744 1.148769
4.723131 -0.3387223 1.554348
3.751099 -0.3882512 1.492129
1.814862 -0.9709127 1.823994
4.431074 -0.1885425 1.554454
4.973508 0.4864553 1.424426
3.738562 -0.3595921 1.628887
3.788248 -0.3372865 1.662029
3.773409 -0.3441571 1.71539
4.440042 -0.2718982 1.58575
1.588525 -0.1118171 2.072901
1.010865 0.3791513 1.558301
1.735795 -0.01690908 2.039764
4.29943 -0.2326149 1.477921
1.729572 -0.1043693 2.052259
4.339556 -0.3539887 1.573176
1.743431 -0.2566001 2.037562
4.670362 -0.19445 1.440472
1.735077 -0.2374748 2.035576
1.729526 -0.02002374 2.056855
1.755409 -0.2258892 2.002917
2.557094 -0.3880709 0.8535889
1.74414 -0.2156256 2.033633
1.680724 -0.332136 2.031779
1.654267 0.04506619 2.136754
1.721653 0.1005794 2.058757
1.685027 -0.01521533 2.068933
1.768553 -0.7369704 1.957894
1.724446 0.01466433 2.053896
4.000168 -1.366407 1.115313
4.752377 -1.224904 0.8174369
4.764759 -0.8911484 0.9097517
5.848554 -0.7791291 0.7001116
4.724787 -1.470109 0.6705475
4.044618 -1.55555 1.077701
4.018586 -1.596009 1.035313
4.046231 -1.55322 1.080833
3.703371 -1.430672 1.092293
3.695362 -1.382966 0.9990702
3.933472 0.0936422 0.9443721
4.716167 -1.173099 0.7701677
4.003695 -1.364496 1.123228
4.99972 -0.5534486 0.9785327
4.694137 -0.6639381 0.9782274
4.719931 -0.6691871 1.025222
3.985524 -1.264117 1.171501
5.271381 0.4999279 1.362753
4.304605 -0.284955 1.603329
4.486811 -0.2690298 1.583361
3.793747 -0.4996809 1.809229
3.800701 -0.335147 1.606888
3.839414 0.252603 1.777006
4.012347 -0.3152719 1.595756
3.833775 -0.4692263 1.654286
3.835687 -0.4740218 1.776018
4.029292 -0.4876783 1.689192
3.757804 0.2204712 1.640524
3.946356 -0.3189951 1.669833
3.856395 -0.3291179 1.695222
4.342301 -0.3526811 1.582834
3.988502 -0.311342 1.648805
3.789334 0.2348355 1.767523
4.104249 0.2706869 1.722571
3.894308 -0.4986779 1.806082
3.761016 -0.522579 1.757844
2.574063 -1.170766 0.4899091
4.562137 -0.2024396 1.475378
4.083486 -0.5895314 1.468478
3.946178 -0.6338732 1.537776
4.130204 -0.7686761 1.467833
4.084618 -0.5642676 1.53787
4.51554 -0.2073786 1.484238
4.609019 -0.1640256 1.34885
3.966744 -0.2500342 1.591736
4.744596 -1.432384 0.6246025
4.414169 -0.2140774 1.462266
4.547126 -0.3648924 1.493214
4.216969 -0.2411398 1.510833
3.739096 -0.2720275 1.563876
3.984232 -0.2627852 1.500186
3.762143 -0.2846527 1.592525
3.940779 0.9271588 0.4198414
3.784605 -0.2592744 1.600847
3.825937 -0.2441182 1.547098
4.119808 -0.2528139 1.515405
3.761442 -0.2888565 1.526955
4.105709 -0.2399452 1.562911
4.527807 -0.2085076 1.447184
4.570242 -0.2057729 1.435707
4.461497 -0.2758204 1.675326
4.535058 -0.3721891 1.470111
4.737187 -1.467731 0.7051325
5.838315 0.5637718 1.230653
3.73534 -0.3628047 1.610815
4.616115 -0.1998526 1.427465
4.692193 -0.3523398 1.45999
4.568749 -0.3677971 1.44225
5.568112 0.5415423 1.316073
4.657839 -0.1969872 1.418039
4.371289 -0.389705 1.56347
4.647802 -0.3879901 1.347065
4.349934 -0.2286806 1.485992
4.663144 -0.3765061 1.485066
3.901061 -0.4861238 1.602586
4.67058 -0.3840705 1.490381
5.841818 0.5688282 1.241211
3.809909 -0.2852081 1.668022
4.620025 -0.3824769 1.385555
5.286902 -0.7903261 0.8492506
4.385674 -0.2746862 1.558506
4.747951 -0.6715349 1.077137
4.027375 -0.4884616 1.694202
4.172474 -0.4528501 1.49253
3.80628 -0.5071065 1.702562
4.021171 -0.4884193 1.66922
4.478271 -0.2611189 1.551888
4.206736 -0.4287222 1.592497
4.017734 -0.5341552 1.612112
4.560261 -0.3645869 1.523727
4.603383 -0.2525231 1.562966
4.286371 -0.2848454 1.625443
4.644319 -0.2428609 1.471738
4.668104 -0.245067 1.542764
4.034349 -0.5084699 1.622518
4.766011 -0.9347538 0.9028862
4.352851 -0.2782334 1.612989
3.886122 -0.3301536 1.745489
4.568069 -0.3690499 1.451298
3.973041 -0.3240305 1.680448
3.94608 -0.9729977 1.288736
5.292814 -0.9844041 0.7673466
4.780822 -0.5692539 1.276108
4.004888 -1.488312 1.050669
5.576341 -0.497234 0.8555976
3.98744 -1.055179 1.243176
5.638768 -0.5709215 0.8872363
3.936762 -0.9116449 1.297346
4.787676 -1.179173 1.068303
4.780536 -1.125227 1.074803
3.950047 -0.7931358 1.371397
3.851555 -0.5064464 1.516707
3.950533 -0.7882389 1.367338
4.544968 -0.3711227 1.404742
4.76966 0.4796807 1.439174
3.911896 -0.6957288 1.369782
3.953505 -0.7887157 1.385327
3.914038 -0.6853307 1.401537
3.946818 -0.7144275 1.41171
3.910066 -0.7121557 1.338016
4.73831 -1.182228 0.8102257
4.663972 -0.5874373 1.245609
4.066343 -0.6537355 1.439232
4.122005 -0.250737 1.512178
3.892625 -0.272704 1.534979
4.434121 -0.2186755 1.453121
4.163491 -0.2471597 1.484683
3.76492 -0.5141891 1.726004
4.301393 -0.2323628 1.483099
4.149791 -0.9492991 1.457965
4.731294 -1.181846 0.8019971
4.655027 -0.1856349 1.466779
4.129363 -0.5537843 1.581579
4.539562 -0.2072832 1.471989
4.494739 -0.2144482 1.474504
3.754053 -0.5289873 1.714247
3.789962 -0.2825679 1.652225
4.654531 -0.5887026 1.226153
4.640759 -0.1976345 1.478629
4.674301 -0.3722166 1.420934
4.50336 -0.1725394 1.476165
4.133592 -0.5307606 1.552864
4.582006 -0.2067513 1.486446
4.711983 -0.3571216 1.495092
3.87556 -0.4857828 1.556765
4.375155 -0.2608731 1.433162
3.981009 -1.263902 1.147716
3.981742 -1.266249 1.131299
5.805607 0.3792498 1.033434
3.962096 -1.124344 1.184124
5.828209 0.5108526 1.114052
4.73782 -0.938916 0.960265
4.013995 -0.5205847 1.615385
3.88699 0.2531205 1.802487
3.83288 0.2300463 1.714049
4.260988 -0.2903087 1.613713
4.472273 0.3166881 1.675321
4.078345 -0.3024526 1.631045
4.53702 -0.2566813 1.497589
4.199471 0.2839076 1.726832
3.897534 -0.3218788 1.661313
4.009961 -0.5144211 1.565131
4.328292 -0.2832034 1.605928
3.974363 0.2623374 1.760038
3.761083 -0.5156738 1.720441
3.83408 -0.4756458 1.662331
4.500147 0.3089458 1.633451
3.795861 0.2484641 1.784931
4.032848 -0.5155001 1.644903
3.759877 -0.5303404 1.733008
4.49026 -0.1695115 3.657849
4.742541 -1.105906 0.9037367
5.566666 -1.375275 1.356518
4.719059 -1.32609 0.8798254
4.661879 -0.759876 1.036587
4.723661 -0.6205453 1.032992
4.742265 -0.3446501 1.122137
4.683436 -0.5789517 1.018165
4.747546 -0.5591702 1.263654
4.796272 -0.5698627 1.314597
4.785758 -0.5672251 1.294151
1.536119 0.5195111 1.249456
4.819111 -0.6435253 1.026222
4.000156 -1.370377 1.115516
4.720017 -0.619755 1.024606
4.702274 -0.4101566 1.097544
4.721168 -0.4185744 1.128788
4.776052 -0.5736135 1.275883
5.861928 0.6335263 1.210917
5.828708 0.6249839 1.16976
5.739448 0.608754 1.088529
4.790828 -0.5679575 1.298275
4.34984 -0.2282135 1.482092
4.527823 -0.2102768 1.451069
4.443385 -0.215021 1.398134
4.474566 -0.255109 1.446603
4.731518 -0.2039701 1.534447
4.382673 0.2983617 1.683562
3.753836 0.2455496 1.807095
3.884563 0.2554788 1.764914
4.416849 -0.2781489 1.580786
4.516098 -0.2620921 1.594677
4.014096 -0.3213479 1.658088
3.921613 -0.3199598 1.676496
3.885288 -0.3365252 1.731214
4.244125 -0.2944584 1.636187
4.152613 -0.3037936 1.670169
4.037526 -0.3078534 1.650268
4.265316 -0.2854442 1.620448
3.793759 0.2450216 1.770263
4.237486 0.2867129 1.66481
3.746331 -0.5269933 1.613891
4.377275 -0.3581778 1.758562
4.258831 -0.2360276 1.501448
4.390007 -0.2241669 1.467421
4.30637 -0.3775815 1.574775
4.439353 -0.2657211 1.575217
4.469773 0.3131228 1.665931
4.69539 -0.2383247 1.547991
4.559581 0.3301016 1.652487
1.68851 -0.07937861 2.061613
1.70582 0.1114913 2.073031
1.700529 -0.3131321 2.038119
1.694978 -0.1379489 2.050616
4.594368 0.3280704 1.624805
1.676856 0.1016509 2.07784
2.642826 -1.644985 1.396599
1.053926 0.2798472 1.785576
0.6376326 0.2562317 1.819373
1.581805 -1.742312 1.590485
2.640972 -1.565088 1.414881
0.9853012 0.2698312 1.827159
1.756999 -1.67105 1.546563
1.048343 0.2795125 1.804175
1.287711 0.3246354 1.823761
0.6024094 0.2166237 1.913818
0.7542758 0.2414693 1.923263
1.276505 0.2808979 1.790242
1.016789 -1.767268 1.690485
0.879164 -1.538071 1.668
0.6957747 0.2486854 1.827383
2.578078 -1.418373 1.510261
0.9726132 0.2572477 1.830654
0.8695285 0.2169396 1.928994
0.5459924 0.20855 1.919616
1.277253 0.2845545 1.795317
0.8888348 0.2025579 1.921517
1.115229 -1.795437 1.703022
1.423838 0.4569677 1.406815
0.7451562 -1.640622 1.60621
0.724698 0.2586251 1.997576
1.75223 -0.883755 1.89986
1.078714 0.219804 1.934085
0.8901721 -1.546742 1.760147
0.715691 0.2495224 1.904816
1.071323 0.2447767 1.88965
1.097053 0.2216712 1.918271
1.128079 0.2386616 1.934393
5.457753 1.082531 -0.568543
2.4733 0.827535 0.6398779
2.466927 0.8282344 0.5916638
2.859761 0.8075628 0.6829865
4.151361 0.9136856 0.4053978
1.407502 0.4000325 1.53207
1.725812 -0.2382697 2.038218
0.7967177 -1.436936 1.681742
1.58251 -0.01536959 2.100922
2.177349 0.6727167 0.9110566
1.403599 0.3962687 1.528434
1.757437 -0.8699781 1.921342
1.484423 -0.3181903 2.076577
2.124408 0.6673974 0.9054672
1.534871 0.5225567 1.247097
1.371989 -0.1924115 2.107634
0.7838003 0.3759809 1.56845
1.536576 -0.2579611 2.082459
1.337919 -0.2552559 2.109301
1.39585 0.08072475 2.122937
0.7359519 -1.609171 1.601525
1.512933 -0.01709503 2.111116
1.515326 0.03872997 2.100873
4.761735 -0.3480848 1.55873
1.440299 0.1219819 2.128239
1.475858 -0.2671474 2.079632
4.56053 0.3239551 1.64929
1.536612 -0.3463173 2.04669
1.705413 -0.3149775 2.032383
1.061981 0.345048 1.567749
1.277369 0.3770689 1.566378
1.159425 0.3398974 1.648333
0.4958906 0.2665365 1.798502
1.302162 0.352469 1.633763
0.5452312 0.2803089 1.77628
1.157755 0.3409005 1.651861
1.226272 0.3476945 1.627364
0.5201039 0.2898778 1.825261
0.5299011 0.2446444 1.857321
1.309927 0.3382475 1.648022
1.20078 0.3178749 1.690799
1.314262 0.3325653 1.668911
0.5963807 0.2777162 1.783116
0.4843726 0.2700236 1.816447
1.319124 0.3390382 1.681797
0.9900926 0.289265 1.74423
0.9795431 0.2991015 1.777826
0.8966326 -1.802778 1.616949
1.20605 0.3117222 1.677182
0.5631686 0.2532811 1.903196
0.9596556 0.31411 1.732192
2.642352 -1.641059 1.396409
1.532133 0.08239438 2.062095
1.621187 -0.3244091 2.077266
1.6165 0.02589416 2.070652
1.646001 -0.1902008 2.060134
1.700997 -0.06847073 2.052217
1.569221 0.0906205 2.091994
1.636845 0.0482201 2.07004
1.390788 0.07140958 2.117032
1.524832 0.02813495 2.084461
1.577392 -0.02142177 2.080996
0.7771832 -1.200383 1.776518
0.9980465 0.202863 1.965362
0.8296214 -0.9807896 1.912561
1.781975 -1.203837 1.758432
0.8695784 -1.044076 1.89098
0.7432041 -0.8262273 2.089962
0.8778521 0.1633033 2.000247
2.454437 0.8090541 0.5736223
0.8814639 0.1690225 2.109293
1.578651 0.5475611 1.198394
1.77508 -1.122162 1.802371
0.6050618 0.1492535 2.084088
0.7878069 -0.9127548 1.96338
0.7657218 -0.5933424 1.98332
0.9738203 0.1742425 2.020697
1.895534 0.5689826 1.13305
2.565918 -0.6556807 1.792153
1.276134 0.06273897 2.082451
1.924275 0.6023092 1.07322
1.452322 0.1125979 2.142487
0.7067602 -0.793113 2.093548
1.073677 0.363962 1.585756
2.448642 -0.284919 1.889094
2.590144 -0.5720489 1.824778
0.8121222 -0.7721844 2.049694
1.425192 -0.3574842 2.123855
1.823654 0.6259058 1.019717
2.179747 0.6740137 0.9242494
1.70042 -0.6733037 2.002609
1.413597 0.4490945 1.395385
1.379276 -0.3338273 2.094699
1.667251 -0.3290736 2.045419
1.450247 0.09890015 2.140344
1.332811 -0.04093415 2.147751
1.405511 0.08028172 2.065786
2.10438 0.5424416 1.195637
2.902923 0.7862909 0.7058451
2.423444 0.6713664 0.9507124
2.661809 0.7282392 0.85501
2.835132 0.7467793 0.8029811
0.7452134 -0.5096083 1.947391
2.161571 0.5559569 1.207021
2.56567 -0.3295543 0.8401315
0.9428356 0.2810087 1.786507
1.156379 0.3392133 1.647509
2.225719 0.6516787 1.121852
2.485672 0.6186817 1.024175
5.540134 -0.2517846 -0.8570114
1.400524 0.3989003 1.53079
0.5017334 0.2535309 -0.4818482
1.144252 0.2955454 1.75753
1.057141 0.2819142 1.775297
5.5399 -0.6108096 -1.033466
0.8018201 -0.9325305 1.995992
5.462589 0.5692384 -0.7649991
5.492773 0.198031 -0.724521
1.740035 -1.61401 1.594217
2.944813 0.7186745 0.8902723
2.551706 -0.3495967 0.9334356
2.803473 0.6706819 0.9672264
0.7502069 -0.8453652 2.185066
2.754617 0.7499661 0.7578545
5.482168 0.392147 -0.8434289
0.8184873 -0.7874852 2.034321
2.336657 0.547656 1.238262
3.370765 0.8567051 0.5372252
0.7201073 -0.187693 2.001425
0.8793345 0.1856113 1.958206
2.405907 0.5398337 1.185899
1.74752 -1.530304 1.692238
2.809272 0.6225445 1.091458
2.83533 0.6557953 1.040361
2.554943 0.6788447 0.9210059
1.7542 -0.3303726 2.021115
1.349079 0.1066553 2.14571
1.706702 -0.2802807 2.032776
1.768268 -0.6266796 2.001734
1.335976 -0.1167255 2.145987
0.7820409 0.06316736 2.259066
1.33753 -0.3691888 2.100752
0.8554754 -0.4051191 2.210123
1.46141 -0.02757116 2.108618
1.635859 0.03638735 2.073913
2.597968 0.1459983 2.089487
1.340452 -0.2687532 2.106273
0.3961385 -0.8423342 2.216778
3.905765 0.9375827 0.4200755
0.9708072 0.1711313 2.019516
2.064341 0.6915457 0.8992831
5.569541 -0.3961945 -0.8422617
2.213919 0.784851 0.6891788
2.293142 0.6799169 0.5452687
2.052679 0.6741949 0.9108147
2.604461 0.6601117 0.9637417
2.625815 -1.209075 0.5197355
2.355336 0.8092657 0.4612693
1.788631 -1.574594 1.571083
2.167493 0.7084886 0.9006815
2.366845 0.8139586 0.4581038
2.480302 0.8160366 0.6063367
4.138074 1.017983 0.1840054
2.442078 0.7857135 0.5937444
2.361105 0.7591508 0.7046556
2.838015 0.7362234 0.7695746
2.403593 0.7281249 0.7950578
2.562639 -0.3336632 0.8748574
1.787585 -1.274822 1.729189
4.223063 0.9418846 0.4038057
2.70879 0.8521994 0.4986108
3.428976 0.8393389 0.5710105
2.171339 0.5680298 1.095514
1.303153 0.1091728 2.140215
4.277576 0.9551553 0.3717287
0.3302917 0.2547341 -0.491051
2.050098 0.8167897 0.5202059
1.652485 0.5830979 1.154398
2.210237 0.8872843 0.5741736
1.6195 0.5724812 1.136941
0.8999879 0.1526824 2.055477
2.562535 -0.3418221 0.8057221
1.466642 0.4301918 1.477986
2.799661 0.638901 1.01786
2.332906 0.5282539 1.305306
2.874639 0.6417519 1.039756
0.9733575 0.1805904 2.037929
1.796498 -1.159396 1.785799
1.753343 -1.445483 1.686954
1.428453 -0.3513516 2.078713
2.679784 -1.60841 1.407856
1.798604 -0.8838171 1.895791
1.819124 -0.8968943 1.900778
1.346466 0.1085225 2.18528
1.348392 0.0682167 2.139122
3.400629 -1.534319 1.093765
1.69742 -0.6720676 1.999205
1.726108 -0.3330231 2.006872
1.711342 -0.1654915 2.062946
1.454716 0.1164558 2.146852
1.700235 -0.05106948 2.064651
2.601215 0.15518 2.093318
2.564757 -0.4686848 1.856833
2.598889 0.1676458 2.091486
1.800372 0.8176968 -0.1303907
2.867957 0.6949829 0.905061
1.932119 0.6297407 -0.08917943
5.460617 1.083384 -0.5637937
3.678954 0.9076551 0.5129374
2.527473 0.1288675 1.182685
2.72132 0.6274894 1.007318
4.269055 0.9189863 0.4216784
2.541651 -0.5992094 0.7688121
2.822097 0.7075064 0.9944549
3.684923 0.8724254 0.5513253
4.000368 0.9692934 0.3410883
3.633618 0.8430929 0.5740213
3.625461 0.8711843 0.6768646
2.513909 0.1299364 1.191775
2.724425 0.6231841 1.127967
4.376372 1.007884 0.237971
2.645502 0.7295591 0.8694117
2.603414 0.5014343 1.272354
5.618999 -0.6973878 -0.5574267
2.501509 0.56192 1.137387
2.534131 -0.5996083 0.7981521
4.186558 0.9612586 0.3604772
5.583588 0.002443165 -0.4120143
4.955759 1.09253 0.009862904
3.969397 0.8929865 0.5618203
4.704173 1.057088 0.1230428
4.085052 0.9033276 0.4524915
2.591519 0.5420773 1.198323
2.048006 1.111469 -0.7741236
4.523579 1.048632 0.1758058
5.617097 -0.4837614 -0.4577109
4.794933 1.073441 0.1408418
4.70108 1.032898 0.1974764
5.544542 -0.7734855 -1.023011
2.923235 0.6805627 0.8286636
2.522307 -1.225353 0.6651442
4.53194 1.168408 -0.1419835
3.435881 0.8545301 0.5925943
4.234308 1.060152 0.07733098
4.121507 0.8748587 0.4487256
2.897319 0.7833228 0.7051013
2.837888 0.7468586 0.6917217
1.743058 -0.4820344 2.025378
2.445921 0.6101894 1.053496
2.754447 0.6539774 0.9447663
3.43955 -0.6019354 0.3479677
2.62427 0.5950789 1.119437
3.436282 -0.5751202 0.3654072
2.729086 -1.613741 1.443759
2.636549 -1.557802 1.416347
3.316327 0.8930036 0.4495204
2.826148 0.6153004 1.026109
2.541768 -0.488167 1.886752
3.423336 0.8207047 0.631445
3.532157 0.6669499 0.9445092
3.392203 0.8153408 0.5677511
3.564173 0.8900275 0.5907499
3.67847 0.8059493 0.5229819
3.794419 0.8638717 0.5362317
3.377152 0.6141126 0.9312354
4.064494 0.9237939 0.404002
2.612921 0.1676141 2.110425
2.324247 0.4490934 0.653695
1.587206 0.924921 0.5332596
2.063209 0.7202335 1.056751
2.56242 0.6466436 0.9739257
2.0559 0.9947869 0.739848
3.817847 0.8244731 0.6726804
2.291347 0.6312178 1.203037
3.718728 0.8130729 0.5898609
2.526329 -0.1108618 1.078938
2.562382 0.696174 0.9382933
2.382107 0.9098236 0.6111106
5.79785 -0.9988701 0.3843758
2.623357 -1.237344 0.5541287
2.217392 0.9923229 0.7442905
3.641125 0.7374997 0.8683965
2.545757 0.710291 0.9906076
1.281996 1.662689 -1.580388
2.795501 0.665102 1.024955
2.811231 0.6518375 0.9478782
1.504364 0.9703067 0.6269194
2.044106 0.5800053 1.133572
1.730435 0.9158474 0.6435171
2.065071 0.83948 0.4330611
5.813833 -0.4392332 0.5496279
5.819081 -1.434179 0.5612367
4.768316 -1.458689 0.6649268
5.848776 -0.9470984 0.6207837
5.833107 -1.349974 0.5967894
3.175324 -1.567029 1.17479
3.176955 -1.622326 1.305856
3.659017 0.7552968 1.073376
3.374197 0.8671173 0.5500562
1.488161 0.9707668 0.6230363
1.502259 -1.939563 2.110703
5.585839 -0.5659732 0.8341358
2.563321 0.5564502 1.372869
1.463092 0.9839733 0.6799765
4.157979 -0.2477001 1.167811
1.825185 -0.4727334 1.679706
4.242611 -0.2959611 1.468212
2.216075 0.9999876 0.7337516
3.416953 -1.638783 1.269375
3.753867 -0.3357188 1.213756
3.595462 0.8655808 0.5680256
1.861922 0.1080004 1.708022
1.779943 -0.6231245 1.793783
4.663087 -0.2389826 1.321739
2.161717 0.6611599 0.9429592
2.5423 -0.5892176 0.8275351
2.221159 0.6417782 0.7828212
1.447352 1.00196 0.6517431
3.840062 0.7896329 0.6122946
3.819545 0.8224545 0.6623902
1.744829 0.945007 0.553443
5.562576 0.9512616 0.363436
3.776388 0.8078725 0.6744559
5.72479 -1.309778 0.1442162
2.919817 0.7213728 0.9532288
2.559436 -0.3636203 0.871134
2.235963 1.022358 0.8104357
2.911004 0.7458976 0.8652595
2.546568 -0.3693081 0.8814619
2.764589 0.6583826 0.8886306
1.708102 0.7768958 -0.1753148
2.869633 0.6503905 0.9627729
4.571354 0.9821907 0.3532538
4.465445 0.9691651 0.3052073
4.269826 0.9186321 0.4233044
4.45187 0.9659435 0.2861708
3.536101 0.6948215 1.007472
5.593502 -0.06974554 -0.2545216
5.546394 0.8068058 -0.1552071
5.547509 0.7294782 -0.02384299
5.564483 0.7357752 -8.73414e-05
3.413751 -1.599357 1.199349
3.415507 -1.615174 1.231917
3.414897 -1.619272 1.226367
5.620923 -0.06765866 0.2435834
5.573302 0.955774 0.3776443
4.715957 -0.6187475 1.016241
4.784699 -0.927694 0.9021117
4.44764 -0.3286121 1.439048
4.119892 -0.209098 1.475156
4.753494 -0.3435255 1.150944
4.026474 -0.4888961 1.670818
5.896205 -1.756372 0.5205418
1.861935 0.6452806 0.1470913
0.9565594 0.8097887 -1.244173
0.9337648 0.7673333 -1.140726
1.142168 1.46445 -1.331258
1.17176 0.4901185 -0.4909331
1.117796 1.371645 -1.376673
1.162353 1.597971 -1.30081
1.161096 1.012381 -0.3180606
1.144254 1.350098 -1.381518
1.409314 0.9524289 -0.2701324
1.112071 1.391679 -0.9189648
0.9079282 0.7205454 -1.034436
1.04194 1.428041 -0.8769775
0.9004469 0.6752057 -0.9348528
1.100625 1.263992 -1.426036
1.253344 0.4792325 -0.5669786
1.911613 0.6350471 0.575045
1.050234 1.22268 -1.67897
1.575646 0.8274424 0.5477779
5.051336 -0.569714 1.029167
1.9771 0.7399117 -0.1603147
1.865136 0.6970668 -0.3475252
2.298282 0.80489 1.05598
3.071682 0.5432538 0.7478002
1.318828 0.5844494 0.5879151
2.82619 0.7046215 0.9539827
1.854138 1.340046 -0.6101845
1.746768 0.8400444 -0.08174016
1.149844 1.213188 -1.510372
2.886469 0.8181735 0.6713108
2.548805 0.7188916 0.9889323
2.803057 0.665916 0.9727169
1.82705 0.6162703 0.688556
1.67998 0.6775436 0.8861043
2.894047 0.6529874 1.064019
1.820585 0.6153996 0.7052867
1.34964 1.617117 -1.615135
1.043833 0.9445006 -1.57267
